ply
format ascii 1.0
element vertex 63
property float x
property float y
property float z
property uchar red
property uchar green
property uchar blue
end_header
1.14642 3.29118 23.2582 219 233 236
1.10676 4.21951 24.2621 215 226 228
0.797 5.20342 24.2529 164 175 172
1.50844 2.83622 23.7218 88 101 103
1.26154 4.10533 23.8096 214 226 228
-0.811951 -0.580059 3.97015 62 48 32
-0.145413 0.0152201 4.87423 52 37 15
-0.246717 -0.908362 3.58811 68 49 20
-0.620504 -1.03846 3.91138 113 96 73
-2.04552 -2.66421 6.01112 133 124 100
-0.237415 -1.06438 3.55916 83 64 34
-0.219842 0.131187 4.92636 115 95 59
-0.901182 1.40915 5.04822 125 103 75
-0.843657 -0.530032 3.98597 176 160 143
-0.821655 -0.49918 4.00935 65 52 36
-0.90154 -0.214379 4.14355 81 65 50
-0.282058 -0.858234 3.61392 60 42 16
-0.246738 -0.911715 3.59107 73 52 24
-0.229519 -0.96135 3.57857 71 51 20
-0.133705 -0.985872 3.5977 136 110 73
-0.826204 -0.803392 3.8854 100 80 54
-0.244649 -0.797042 3.64084 62 46 19
-2.24975 -2.46631 6.3078 147 142 128
-0.0909779 -1.11559 3.63442 126 104 60
-0.136563 -1.15794 3.59957 162 144 109
-0.170711 -1.16275 3.5828 160 137 102
-0.221114 0.538975 5.13156 69 49 22
-0.917768 0.656131 4.63934 65 44 18
-0.187509 0.607408 5.16232 123 101 67
-0.841351 -0.782908 3.89902 58 38 13
-0.240218 -1.41892 3.63684 90 75 42
-0.123116 -1.22427 3.61688 124 100 55
-0.202215 -1.25365 3.59215 175 153 116
-0.258463 -1.31018 3.5935 113 92 57
-0.156606 -1.34714 3.6452 132 109 69
-0.318491 -1.43208 3.64495 119 104 71
-0.301209 -1.00594 3.58859 159 143 114
-0.250287 -1.08002 3.56393 116 97 66
-0.0765454 -1.13936 3.65216 170 148 108
-0.245205 -1.12577 3.55638 94 76 45
-0.110311 -1.16454 3.62084 166 148 109
-0.134293 -1.16497 3.60786 164 144 107
-0.121576 -1.17711 3.61212 116 94 56
-0.204792 0.485633 5.10834 52 35 9
-0.145448 0.592494 5.18483 120 93 65
-0.171407 0.11384 4.91714 131 106 69
-0.819571 1.58266 5.20494 116 93 71
-0.734622 1.4491 5.24655 185 162 135
-0.901151 1.3921 5.05198 145 122 94
-0.193443 0.0127975 4.86252 64 48 20
-0.96889 0.918214 4.73062 73 51 25
-0.943398 0.778549 4.68321 62 42 14
-0.830862 -0.30911 4.11176 91 74 59
-0.0791663 -0.508269 4.58486 96 75 40
-0.0817891 -0.568232 4.54137 137 123 82
-0.0630004 -0.613529 4.53735 56 41 26
-0.807862 -0.640274 3.93588 123 105 85
-0.243709 -0.00990862 4.85882 157 141 106
-0.0550539 -0.558066 4.55719 58 42 27
-0.284489 -1.49149 3.6701 195 180 148
-0.170974 0.409301 5.07433 118 95 66
-0.262246 0.0791871 4.89155 61 46 16
-0.130985 -0.0581671 4.84179 50 33 11
