ply
format ascii 1.0
element vertex 1290
property float x
property float y
property float z
property uchar red
property uchar green
property uchar blue
end_header
-2.52098 -1.904 5.83707 87 92 96
0.380786 -1.36259 7.45229 164 149 136
-2.0716 0.701796 6.85179 217 194 185
1.64476 0.18352 6.98934 65 74 82
0.500015 0.580959 7.36748 169 149 136
0.845838 -0.72353 7.38648 140 131 125
-1.11102 -2.12188 7.37509 153 132 129
0.831384 0.505974 7.26984 95 104 100
2.69669 -1.70584 6.92863 106 98 102
-1.14977 -2.32603 7.26076 124 127 119
1.25228 -0.364232 7.28702 109 116 104
0.0316865 1.58688 7.60238 177 167 166
2.85336 0.401051 6.56625 66 72 79
-0.0404616 -0.535131 7.52444 156 146 147
-1.66019 -1.03524 6.83267 178 160 148
1.61529 0.225698 6.97705 72 81 89
0.674449 0.229976 7.32845 101 112 103
-2.54506 0.653673 6.53467 190 158 151
-1.62825 -0.996158 6.86865 128 133 121
1.91193 0.95388 6.77775 78 83 90
0.546261 -0.313476 7.34337 188 171 158
0.546261 -0.313476 7.34337 188 171 158
1.64067 -2.03367 7.19459 77 89 93
-1.47215 0.797239 7.19947 202 176 159
-1.47215 0.797239 7.19947 202 176 159
2.22939 -0.482098 7.03961 65 74 84
2.63027 -1.71201 6.93071 65 69 79
-0.0325718 -0.979991 7.52635 117 125 116
2.31793 0.411559 6.71094 65 76 78
1.61485 -0.542642 7.21097 87 101 93
0.387891 -1.31504 7.45002 119 130 119
-1.1648 0.975639 7.37585 167 152 144
1.31319 0.522244 7.06021 118 128 111
-2.46238 -1.08004 6.28374 135 123 116
-1.30185 0.395508 7.34317 213 189 178
0.81045 -1.58591 7.37284 85 95 100
0.142203 -0.979138 7.42671 91 100 100
-2.44591 -1.75066 5.98079 97 102 100
3.18349 -1.27393 6.82965 96 92 98
0.02327 1.01904 7.54766 157 158 141
-1.5172 -1.27827 6.84104 191 166 152
0.140492 -0.325813 7.45609 160 148 132
0.506821 0.494737 7.33681 90 96 102
1.54434 1.14285 6.92499 103 109 107
1.12042 -0.318647 7.2919 108 110 104
1.66881 -0.287061 7.18158 139 120 110
1.66881 -0.287061 7.18158 139 120 110
1.66993 -0.287059 7.18542 153 131 120
0.992748 0.804743 7.19673 143 142 134
0.992748 0.804743 7.19673 143 142 134
-1.0979 1.59958 7.44196 207 178 168
1.00053 0.503824 7.11654 74 84 93
0.999092 0.503608 7.11376 67 77 86
-2.88308 0.934538 6.2399 156 148 143
1.92771 -1.93152 7.0987 115 119 105
0.581023 -0.636023 7.38729 84 94 97
0.582248 -0.636521 7.39891 78 88 91
1.20647 -1.38648 7.26718 88 99 97
1.20916 -1.38884 7.28379 85 95 94
-0.124824 -0.422449 7.52825 121 128 118
0.00449778 -0.846811 7.51644 175 172 170
0.00449778 -0.846811 7.51644 175 172 170
1.11751 0.377074 7.10225 70 79 86
0.728852 -1.14674 7.41951 104 113 105
-0.874705 -2.4538 7.39989 123 133 117
-1.37607 -0.288418 7.30536 150 151 140
0.508025 -1.16187 7.44683 113 128 116
0.993079 0.595905 7.20102 81 91 94
0.993079 0.595905 7.20102 81 91 94
-2.55541 0.547104 6.45216 142 129 128
1.69745 -2.24281 7.25088 116 118 107
-2.49136 -1.03659 6.24377 154 140 130
-1.54615 0.322855 7.17945 165 142 137
0.662789 -1.59709 7.42201 135 139 120
0.662789 -1.59709 7.42201 135 139 120
0.814044 -0.625441 7.38623 97 108 102
-2.33598 1.13711 6.43187 133 130 129
0.13092 1.3692 7.52626 172 161 154
1.61451 0.150605 7.00535 73 75 83
-2.65463 -1.91478 5.76049 95 104 100
2.96438 -2.25975 6.88932 107 108 103
-1.79564 -0.585702 6.79751 163 154 141
0.531924 -1.23105 7.42904 107 119 109
0.531924 -1.23105 7.42904 107 119 109
1.25842 -0.156323 7.15959 87 96 93
1.03398 -0.639154 7.35532 71 84 87
-2.589 -0.423166 6.24739 154 125 123
0.0243148 -0.522495 7.53255 114 118 113
1.56303 -0.636563 7.20192 89 102 98
1.56303 -0.636563 7.20192 89 102 98
1.78288 0.113503 6.95244 64 74 80
1.81227 -0.744922 7.11464 84 97 90
-2.30328 0.0683613 6.62175 153 125 125
-1.05856 -1.24116 7.47296 185 165 158
-2.45855 -1.69748 5.97188 142 139 127
0.762483 0.133724 7.253 133 146 119
-2.51759 -1.57418 5.94812 109 115 113
-2.51784 -1.57416 5.94812 104 109 106
2.14126 0.755555 6.70727 122 124 118
1.44676 -0.426136 7.21829 67 78 82
2.24374 0.0875382 6.86249 72 80 85
2.36008 -1.24838 7.05468 92 97 95
1.37684 -2.34593 7.36539 128 137 119
0.722883 -1.6911 7.40771 101 114 111
-0.859725 -2.29762 7.45669 121 132 123
-0.97976 0.68244 7.55451 169 158 157
-2.02085 0.265468 6.8017 115 119 115
-1.72202 -1.39914 6.64828 221 188 171
1.89642 -0.522632 7.13758 107 117 96
1.95396 -1.87892 7.07426 71 82 84
-1.33247 -0.433855 7.21924 147 150 137
-1.33247 -0.433855 7.21924 147 150 137
-0.906021 -2.34931 7.39768 156 151 138
0.857684 0.263635 7.22925 128 138 119
-1.4108 0.381316 7.26439 211 190 179
-1.93687 -1.08049 6.61836 154 150 139
0.150959 -1.33953 7.47135 115 123 118
-1.78629 0.193117 6.98346 191 166 154
0.00107675 -0.294965 7.54961 132 137 134
0.130437 -1.37425 7.51024 127 130 117
-0.0126118 0.817287 7.57008 126 132 125
2.13815 -0.640809 7.05751 64 72 79
0.366609 1.35962 7.48223 149 139 138
0.366609 1.35962 7.48223 149 139 138
-2.12474 -1.1149 6.45372 129 133 123
0.483281 -0.0828424 7.38716 108 125 114
-2.34193 -0.536951 6.33215 153 144 137
-2.74188 0.00533433 6.3142 228 213 209
-0.573008 -2.28091 7.50126 216 195 187
1.55414 0.273195 7.01788 81 91 95
-1.88652 0.663798 6.98324 228 209 201
-1.44914 -0.212311 7.17024 163 146 139
-1.95428 -0.705041 6.62735 127 131 117
2.55577 -1.62261 6.92408 131 111 113
0.879332 0.579567 7.2793 120 116 107
2.71399 -1.19761 6.93805 110 98 97
2.1177 0.621261 6.73235 112 112 107
1.46699 -1.80598 7.202 94 109 103
-2.53528 -1.60569 5.92426 123 120 117
-2.53528 -1.60569 5.92426 123 120 117
1.53518 0.365542 7.00646 81 89 87
0.736373 0.853416 7.31111 146 140 135
1.06146 -1.31556 7.35908 104 117 110
2.58416 -1.73458 6.93824 86 79 86
2.58416 -1.73458 6.93824 86 79 86
-2.99412 0.764545 6.24105 165 137 137
-2.98746 -0.171371 6.07685 132 122 123
-2.98746 -0.171371 6.07685 132 122 123
1.26866 -0.125685 7.13258 90 99 95
-1.37342 -0.517489 7.1248 180 170 161
-1.91552 1.17841 6.79627 171 163 155
1.33274 -2.25692 7.36811 136 138 122
-0.419886 -2.33793 7.49804 206 194 188
-2.99251 0.556779 6.14222 134 124 124
-1.47898 -0.460944 7.05677 126 133 119
-2.24982 1.31279 6.45297 115 116 119
-2.24982 1.31279 6.45297 115 116 119
-2.79132 0.966327 6.2908 181 159 153
0.249808 0.534822 7.49432 143 137 128
-1.18414 1.57753 7.38175 196 171 160
-1.22642 0.753615 7.38809 141 147 132
1.00954 -0.780812 7.34496 129 139 118
1.00954 -0.780812 7.34496 129 139 118
1.26774 0.3488 7.04081 144 121 112
1.26774 0.3488 7.04081 144 121 112
1.26774 0.3488 7.04081 144 121 112
-2.61058 1.01859 6.36654 163 150 144
-2.02915 0.632036 6.88411 179 149 146
-1.15202 0.957419 7.39996 227 191 172
1.99626 0.12081 6.92943 119 111 101
1.20216 -0.389995 7.28433 102 107 98
1.20216 -0.389995 7.28433 102 107 98
-1.04366 -1.26865 7.48266 162 145 141
0.892228 0.188679 7.18276 177 150 135
-0.944819 -2.02417 7.49048 165 148 140
0.436485 1.34269 7.43661 130 126 125
-1.56299 -0.302854 7.07485 212 185 171
-1.61176 -2.03501 6.6323 156 151 133
1.5569 -2.41185 7.35709 109 121 105
1.5569 -2.41185 7.35709 109 121 105
-0.00874273 0.281015 7.54981 117 126 117
-0.00874273 0.281015 7.54981 117 126 117
1.25037 -0.0897604 7.13312 177 141 123
0.660073 0.212615 7.32671 165 137 124
-2.37545 0.0427866 6.56347 222 207 204
-2.22261 0.681458 6.76462 174 143 140
2.15498 -0.000530051 6.93978 85 99 95
-2.70857 -1.91055 5.73141 94 100 101
0.669576 1.38386 7.35156 105 104 111
-0.0371079 -1.14843 7.52557 172 171 170
-0.0371079 -1.14843 7.52557 172 171 170
-2.00418 1.18226 6.76644 123 120 124
-2.27484 -0.727283 6.30956 113 123 115
2.31209 -1.30947 7.02621 87 99 92
-2.61015 1.15717 6.22926 145 139 136
0.208986 -0.846926 7.44792 109 117 112
2.46651 -1.49967 6.9968 99 102 99
-2.61192 1.1717 6.21792 112 118 118
-2.61192 1.1717 6.21792 112 118 118
-2.31895 -0.429273 6.37513 122 122 119
2.65291 -0.926142 6.9692 67 66 79
1.89761 -2.13868 7.12409 120 116 107
1.89761 -2.13868 7.12409 120 116 107
2.62472 0.540141 6.63386 73 86 86
-2.76326 -1.22785 6.04303 141 124 124
1.75023 -2.29832 7.27105 112 117 103
1.57839 -2.31685 7.2974 77 90 90
0.788456 1.08211 7.32649 102 103 104
-1.48053 -0.433272 7.07274 175 174 157
-0.79305 -2.18994 7.505 171 172 171
-0.791709 -2.28831 7.49711 177 159 146
-0.792572 -2.28692 7.49224 183 166 154
2.18932 -1.53137 7.01771 77 75 81
0.770439 0.748131 7.31993 160 141 136
1.67504 -0.94208 7.14722 121 127 113
1.67504 -0.94208 7.14722 121 127 113
0.690468 0.43051 7.32549 93 102 101
0.690468 0.43051 7.32549 93 102 101
-2.37183 -1.04023 6.35432 144 128 126
-1.92365 1.31874 6.7329 168 155 150
-0.689193 -2.20016 7.49832 134 144 128
-0.689193 -2.20016 7.49832 134 144 128
-0.924742 -2.06102 7.49826 144 142 134
1.04242 -0.0547201 7.16278 101 110 104
1.54453 -0.648928 7.2002 113 117 102
2.52926 0.0128007 6.82091 91 106 94
2.52926 0.0128007 6.82091 91 106 94
2.58938 -1.71315 6.93116 125 105 108
2.20442 -1.50977 6.99069 61 67 83
-2.13402 0.654829 6.81636 216 189 177
0.118324 0.244922 7.50188 147 133 122
0.118324 0.244922 7.50188 147 133 122
-2.34213 0.313296 6.57251 120 125 114
1.14604 1.15098 7.15853 120 123 116
0.492639 0.224057 7.3831 110 103 109
1.79606 -1.97493 7.10136 69 80 86
1.79606 -1.97493 7.10136 69 80 86
-1.81206 0.975029 6.90539 186 167 152
0.700016 -1.61621 7.41151 130 134 119
-1.95728 -1.07985 6.59303 171 167 154
0.651984 -1.63891 7.42017 109 121 113
-2.55061 -1.81347 5.8407 138 139 126
0.946757 1.35953 7.23832 156 146 142
0.628014 -1.69846 7.42738 135 141 125
2.02582 0.526849 6.79656 119 123 113
-2.71886 0.888901 6.36726 171 160 156
0.935416 0.216679 7.17536 99 107 99
0.76255 -1.1391 7.41711 106 115 106
-1.36191 -0.0695477 7.24455 140 143 139
2.28792 -1.24165 7.0321 85 93 90
1.24753 -0.213248 7.16797 119 129 112
-2.32423 -0.699822 6.26392 145 144 131
1.49481 -1.34611 7.17267 79 88 89
0.811872 -1.15373 7.3994 90 101 101
1.62871 -0.385352 7.20694 64 76 80
2.39938 0.444726 6.69543 75 85 88
-2.17935 1.28154 6.52637 122 123 125
-2.46978 -1.5944 5.99636 116 116 107
-2.50627 -0.824467 6.14377 99 104 103
2.32956 -0.163158 6.97776 100 111 97
-2.77243 -0.00310703 6.29079 223 214 213
1.75486 -0.994807 7.13398 69 82 90
1.75486 -0.994807 7.13398 69 82 90
-0.124855 -0.494055 7.52744 188 186 185
2.13652 0.130903 6.87586 97 103 97
2.13652 0.130903 6.87586 97 103 97
2.95933 -2.17403 6.90677 125 113 107
2.95933 -2.17403 6.90677 125 113 107
-1.46657 -0.928735 7.06866 251 234 216
-2.27757 -0.388657 6.40711 201 184 178
0.294537 1.44116 7.5419 202 173 163
0.370821 -1.41336 7.4471 204 187 175
-0.456386 -2.34802 7.4944 225 203 195
0.656118 1.24924 7.36532 163 159 150
-1.72288 -0.957168 6.82667 228 209 197
-1.72288 -0.957168 6.82667 228 209 197
-1.35215 -2.0036 6.84338 123 132 121
-1.35215 -2.0036 6.84338 123 132 121
1.23107 -0.0839001 7.13525 170 139 121
-2.32455 -1.39511 6.13874 110 111 105
-2.67578 -0.121177 6.29942 144 140 133
1.35443 -1.13458 7.25305 83 95 91
2.10435 -0.239811 7.08305 166 133 121
1.57912 -1.13257 7.15926 118 122 109
3.03039 -1.9119 6.90473 69 81 83
-2.31802 -0.324087 6.41166 134 134 127
-2.31773 -0.324093 6.41098 126 126 119
0.0330713 0.248901 7.5238 112 121 113
-2.80854 0.0633879 6.27321 155 124 123
0.942493 -1.72643 7.3297 131 145 118
2.16977 -0.786581 7.05053 64 69 77
1.16398 -0.459605 7.30126 103 108 98
1.16398 -0.459605 7.30126 103 108 98
0.311953 -0.336577 7.40498 119 126 113
-0.0864606 -0.942725 7.51714 166 166 165
1.61474 -1.06074 7.18824 113 105 103
-2.38034 -0.336867 6.37925 198 181 174
-1.11942 -0.510867 7.51204 151 138 134
2.03301 -0.260011 7.05802 72 79 82
-1.73249 -1.51788 6.63434 156 134 127
2.20446 -1.32192 7.03497 105 121 98
2.20567 -1.32221 7.03643 112 129 105
0.746916 0.428631 7.31646 114 109 106
-2.57143 -0.388907 6.26664 156 126 124
1.72352 -0.102925 7.07386 74 84 82
1.12578 -1.16419 7.33668 138 138 124
1.12578 -1.16419 7.33668 138 138 124
-1.13052 -1.67521 7.239 162 139 137
0.572154 -0.0885188 7.35701 98 110 102
2.07379 -0.571623 7.10319 142 116 112
-2.28694 0.131862 6.65205 161 136 131
0.782269 -0.740917 7.39233 91 100 97
0.731332 -0.549214 7.36413 128 135 122
-1.5911 0.099532 7.08088 160 154 141
-1.5911 0.099532 7.08088 160 154 141
0.58794 0.164451 7.35662 102 106 103
-1.43126 0.364896 7.27088 203 176 164
-1.55414 0.704856 7.16243 130 132 128
2.78417 -1.66703 6.93925 81 77 87
2.78417 -1.66703 6.93925 81 77 87
0.663146 -1.49364 7.41323 105 116 110
-2.22009 0.117412 6.68007 177 154 148
-1.74263 -0.764569 6.79259 123 131 118
-2.61764 -0.391925 6.24249 154 130 129
-2.61764 -0.391925 6.24249 154 130 129
0.542616 0.985611 7.42438 113 117 112
-1.81101 1.09721 6.92333 195 174 164
-1.94752 0.0480305 6.80189 132 135 119
-2.88413 -1.31822 5.90238 134 117 115
-0.0225364 0.240239 7.54613 115 124 112
2.6546 -1.85519 6.92973 74 71 83
1.42355 -0.47364 7.272 62 73 83
-1.72007 -1.65422 6.63553 167 159 147
-1.71952 -1.65371 6.63296 163 154 140
1.28438 -1.18148 7.26866 80 89 91
-2.45741 -0.215249 6.39428 159 142 136
0.353839 -0.927767 7.49582 131 142 124
-1.73235 -1.66354 6.60887 132 137 122
-0.87993 -2.37668 7.41409 145 151 130
1.32789 -1.27471 7.20501 138 137 121
0.00929528 1.63316 7.59792 175 165 164
-2.30558 -0.750201 6.29115 107 116 108
-2.33052 -0.0998198 6.4869 164 141 134
-1.27381 -2.11389 7.01093 156 131 126
-1.86775 0.955736 6.87409 194 168 155
-2.75035 -0.544487 6.08219 152 125 128
1.12622 -0.368691 7.26773 142 131 115
1.69701 1.11483 6.85162 98 104 105
-1.91824 0.245063 6.90548 177 162 155
-2.3959 -1.53366 6.06118 202 167 152
-2.55675 -0.668618 6.12972 105 108 109
-1.8837 1.13017 6.87435 139 127 128
-1.50939 0.827505 7.15508 174 176 151
-1.50939 0.827505 7.15508 174 176 151
-2.36019 -1.58179 6.05861 161 120 117
-2.01574 -1.00182 6.63928 134 129 125
-2.95147 0.972726 6.17028 109 112 114
-1.20391 0.382842 7.46074 179 153 145
1.77788 0.613799 6.90071 98 103 97
1.53998 -0.00294587 7.06693 78 89 86
0.685939 -1.40862 7.41634 108 116 110
0.735746 1.20069 7.35652 161 157 145
-2.9708 1.16176 6.13575 144 132 133
-1.13615 0.220449 7.47155 131 134 122
-1.13615 0.220449 7.47155 131 134 122
2.2286 -0.242358 7.05748 103 104 98
-2.64097 1.11505 6.26161 106 108 112
0.758819 -1.4126 7.40331 99 103 104
-1.91808 -0.824053 6.63719 153 156 137
1.23822 1.03039 7.1194 149 140 137
-0.921216 0.794672 7.55241 133 141 134
-2.23881 0.686574 6.74966 172 141 138
-1.84525 -0.973939 6.74634 195 174 162
0.0396783 -0.582474 7.54444 151 160 139
2.09567 0.268143 6.84778 79 88 89
1.0612 -0.406965 7.31477 132 136 117
2.60309 -1.91871 6.8971 70 78 85
0.273023 -1.66206 7.51174 115 120 117
1.86747 0.209822 6.9423 112 121 109
-0.292393 -2.0247 7.48533 182 172 166
1.84898 -1.56488 7.06305 99 114 98
1.12024 -1.77973 7.28897 80 89 93
1.18005 1.36481 7.15756 158 145 141
-1.8089 -0.330464 6.85325 191 165 155
2.77619 -2.20047 6.91966 110 104 99
0.565378 1.1742 7.41843 153 142 135
-1.17517 -1.91523 7.23853 227 198 182
0.950324 0.49112 7.14962 70 78 86
2.60054 -1.14243 6.95606 118 129 109
1.5374 -0.688984 7.19535 122 124 109
0.0795435 -1.32392 7.51812 168 168 168
0.445001 1.36215 7.43513 171 158 154
1.64708 -0.299379 7.20495 99 111 99
1.64708 -0.299379 7.20495 99 111 99
2.20557 0.0995338 6.88865 73 83 83
-2.27364 -1.38038 6.18137 105 108 106
-2.53364 -1.20967 6.15561 149 145 129
-2.53364 -1.20967 6.15561 149 145 129
1.14083 -1.28235 7.31506 121 132 112
0.472197 -1.3516 7.44646 110 120 112
-1.24269 -0.137027 7.36513 173 166 151
0.68714 -1.50639 7.41788 144 149 124
0.68714 -1.50639 7.41788 144 149 124
-2.79637 0.0504065 6.28181 225 209 204
1.80983 0.331653 6.9227 111 116 106
1.80983 0.331653 6.9227 111 116 106
1.35871 -1.48604 7.18719 116 126 113
0.354373 1.52279 7.51215 151 140 139
-2.27187 1.30217 6.4294 114 117 119
-1.47778 -0.706745 6.98362 152 154 136
1.92085 -0.173816 7.07488 159 132 121
-2.05595 -0.986864 6.61067 191 168 160
1.57359 1.08096 6.92224 145 138 135
1.57359 1.08096 6.92224 145 138 135
0.594425 0.205189 7.36558 92 96 96
0.025059 -1.19588 7.50909 185 185 186
1.03984 1.36304 7.19989 102 100 110
-2.31597 -1.57704 6.11098 199 168 148
-2.31597 -1.57704 6.11098 199 168 148
2.37098 -1.8421 6.96083 141 124 123
-0.921539 1.52872 7.58075 187 151 146
1.24203 0.626092 7.0862 114 129 109
2.65489 -1.10159 6.9615 112 107 98
2.65489 -1.10159 6.9615 112 107 98
1.90891 -1.94472 7.08338 80 89 90
-1.53985 -1.41488 6.7965 219 189 174
-1.39166 -0.911175 7.13287 237 211 194
1.85728 -0.194206 7.07521 116 121 117
2.01204 -2.11492 7.07944 87 101 93
2.01204 -2.11492 7.07944 87 101 93
1.46685 -0.960735 7.21216 113 120 104
-2.0818 -1.14879 6.46197 159 152 139
1.30242 -1.256 7.2553 94 100 96
1.30242 -1.256 7.2553 94 100 96
1.30242 -1.256 7.2553 94 100 96
-1.14046 0.978148 7.41498 168 148 144
-2.14192 -1.31801 6.32722 157 151 140
2.22836 -0.0746559 6.96557 79 79 87
-2.29433 -0.103386 6.49756 130 130 119
1.39468 -2.33024 7.36533 77 88 91
1.40116 0.180339 6.98079 69 78 86
1.39944 0.179841 6.97361 62 71 80
-1.51076 -0.62865 7.0105 152 160 134
1.02872 -1.30334 7.35154 102 117 106
1.38605 0.967336 7.02495 78 82 91
-2.57033 -1.55869 5.91179 148 149 136
-2.70959 -1.71463 5.7815 160 131 128
-1.87175 -1.31117 6.57471 153 151 136
-1.87175 -1.31117 6.57471 153 151 136
0.730818 0.109255 7.25877 145 132 116
-2.41867 0.0863753 6.54401 243 211 194
-2.80088 0.835746 6.34531 168 146 144
-2.51428 -1.13068 6.24291 197 173 164
2.01141 -0.228331 7.05186 79 90 91
-0.109786 0.110752 7.53811 111 123 112
0.64855 -1.20215 7.42386 167 148 137
-2.30457 -1.21746 6.2503 109 113 107
-2.19946 0.219349 6.7034 172 149 139
1.09996 -1.79096 7.27343 135 138 122
0.348065 0.666817 7.39647 113 124 110
2.08863 -1.57912 7.0303 84 93 90
0.683016 -1.30242 7.42007 116 124 116
0.683016 -1.30242 7.42007 116 124 116
-1.74528 0.0851797 6.9651 132 133 123
0.606036 -0.500005 7.42025 93 104 101
2.41756 -1.70182 6.95563 66 65 76
-2.24836 0.938788 6.59462 121 124 122
0.985865 -0.177874 7.15285 85 95 96
0.307865 1.31295 7.51396 193 164 155
0.307865 1.31295 7.51396 193 164 155
0.0855507 -1.44667 7.51388 116 129 118
0.0855507 -1.44667 7.51388 116 129 118
2.79473 -2.1842 6.9313 78 85 85
1.50633 -0.20896 7.17218 89 102 95
-1.88481 -0.955336 6.7111 146 140 131
0.955172 0.700532 7.19576 92 93 102
0.955172 0.700532 7.19576 92 93 102
2.17881 -1.56257 7.00657 147 122 119
0.0320081 0.67178 7.57021 162 163 162
0.967279 -0.351893 7.29852 126 126 110
0.39209 1.27862 7.47659 179 164 155
-2.32998 -0.553315 6.32271 106 116 114
-2.32999 -0.553307 6.32261 101 109 107
-0.359787 -2.36715 7.49745 240 229 226
0.289135 -1.56055 7.4878 89 101 103
0.982416 0.521939 7.11765 118 124 111
-1.68169 -1.71258 6.65344 121 127 115
0.315013 -1.34968 7.44395 114 124 116
0.858251 0.338047 7.18481 74 81 87
-0.0937262 0.982294 7.56102 143 145 137
-2.36316 0.032061 6.5723 165 136 134
-1.49223 -0.944069 7.06663 208 172 157
0.0994372 -1.40715 7.51603 131 137 130
-1.08293 -0.906786 7.51272 166 144 139
1.41027 -0.178986 7.14893 88 99 92
-1.86624 0.678078 6.98363 163 141 138
1.96545 -2.2932 7.16286 66 78 83
2.16209 0.0714892 6.91114 76 89 90
-1.44694 -0.188728 7.16417 224 205 194
-2.56413 0.27341 6.43737 122 128 123
2.90086 -1.65825 6.92086 104 93 98
1.09612 -0.439462 7.29494 146 134 119
1.09638 -0.439484 7.29714 136 125 110
1.09638 -0.439484 7.29714 136 125 110
1.12414 -1.19667 7.31898 124 127 114
1.12369 -1.19623 7.31505 133 135 121
-1.08394 -2.17686 7.37204 189 161 154
-1.08381 -2.17751 7.37444 185 156 150
1.63871 0.720092 6.92224 99 105 103
-1.10635 -2.38488 7.28787 194 168 157
-1.10635 -2.38488 7.28787 194 168 157
3.05721 -1.02573 6.86275 80 84 86
0.108253 -0.602197 7.52959 207 197 194
-2.69366 0.0479858 6.35754 224 209 207
1.22007 -0.549904 7.30139 75 85 89
-2.60664 -1.44931 5.93257 117 118 110
0.38583 -0.739574 7.46712 100 108 108
0.387121 -0.740031 7.47382 94 103 101
-2.39964 -0.300897 6.38924 176 153 146
-2.39964 -0.300897 6.38924 176 153 146
0.519521 -0.206714 7.35969 109 114 108
0.960255 -0.883259 7.39506 93 103 100
1.48133 0.0785319 7.06962 109 117 102
0.981691 -1.11217 7.3893 130 124 112
0.520257 -1.32376 7.44585 113 124 112
1.01672 0.68695 7.17044 138 144 122
1.91418 -2.31712 7.19257 98 110 105
-2.35586 -0.126259 6.4716 144 137 129
-2.87304 0.457431 6.16799 118 119 116
1.18432 1.16254 7.12833 145 138 135
1.18432 1.16254 7.12833 145 138 135
-1.04343 -1.73499 7.4779 218 193 179
2.49065 0.690204 6.63488 72 80 84
1.92282 -0.579021 7.11738 128 117 105
1.23855 -1.46678 7.27801 101 115 107
-2.52642 -1.41095 5.96873 140 151 116
-2.58439 -1.62813 5.88747 119 123 111
1.42023 -0.968516 7.23899 111 124 111
2.13611 1.22475 6.70474 95 92 99
2.72139 -0.757058 6.92201 57 70 78
2.72139 -0.757058 6.92201 57 70 78
-2.66195 -1.19119 6.12026 199 181 176
-2.14256 -1.00261 6.53727 153 129 125
0.699932 -1.15548 7.42192 117 124 111
1.33612 -1.91853 7.28775 74 89 93
1.33612 -1.91853 7.28775 74 89 93
-2.66171 0.78962 6.45082 150 133 135
0.732704 0.726545 7.30694 147 145 134
-1.50235 0.814392 7.17033 139 144 132
2.09666 0.823568 6.73585 136 117 112
-2.30022 0.475781 6.60649 159 139 134
2.26212 -1.43252 7.01546 118 113 100
2.26212 -1.43252 7.01546 118 113 100
-2.75857 0.637433 6.3687 160 141 138
1.07384 0.490865 7.09547 108 116 104
2.69204 -0.993385 6.97464 79 79 83
-1.08875 -2.37837 7.28807 152 128 125
-1.36016 -2.28445 6.86921 122 123 119
-2.37883 0.400399 6.52317 113 120 117
-1.44128 -0.158293 7.17448 193 174 160
-1.66733 0.528089 7.12187 165 157 143
2.30625 -1.2578 7.03884 123 115 101
-1.51228 -0.664949 6.98103 183 164 149
2.66492 -0.648335 6.98672 57 68 78
1.00543 -1.30109 7.35469 120 135 111
1.00377 -1.29971 7.3443 127 143 118
2.01676 -0.642498 7.09836 145 121 114
-1.51267 -0.308068 7.09573 209 183 169
2.98608 -2.03195 6.9119 147 132 126
0.720531 -1.11433 7.4191 105 115 106
0.720531 -1.11433 7.4191 105 115 106
-2.78247 0.977676 6.30422 146 126 129
2.09105 1.16907 6.74796 105 106 105
-1.55159 -1.29292 6.81217 219 191 176
1.39919 -1.86189 7.23039 94 108 102
1.04172 -1.26903 7.35275 104 118 108
-2.00908 -1.14535 6.51661 158 154 142
0.587759 1.50701 7.42996 179 162 151
0.587759 1.50701 7.42996 179 162 151
1.35328 -2.23666 7.36666 94 103 102
-2.72648 0.406751 6.2889 159 151 145
2.66789 -1.76294 6.91759 59 62 75
-0.104282 -0.468723 7.48397 187 185 183
-2.68328 0.0232714 6.36833 220 204 201
-2.30239 -0.773477 6.27158 158 157 144
0.920239 -0.981702 7.39114 109 121 110
2.54111 -1.25655 6.98556 144 117 110
2.33217 -1.24529 7.0315 165 135 123
0.0305151 -0.440305 7.5319 205 189 182
2.90264 0.467541 6.53914 107 111 99
1.06306 -1.10558 7.36614 93 105 98
-1.95253 0.223528 6.8788 173 164 154
-2.37683 0.349681 6.53521 111 120 115
-2.37472 0.348979 6.528 101 108 106
0.728364 0.410978 7.30796 160 126 117
0.729819 0.412741 7.32506 172 137 128
-2.41869 -0.232814 6.39674 111 115 113
1.24635 -0.396667 7.2848 106 107 99
1.46947 -1.53998 7.14221 74 84 91
-2.44323 0.545527 6.53649 133 128 128
1.59117 -1.11332 7.15731 88 100 93
0.046753 0.632609 7.56107 151 151 148
0.243119 1.54636 7.56467 177 160 152
0.924216 0.0867631 7.17387 98 104 99
-2.34053 1.11942 6.43352 199 172 165
-2.34053 1.11942 6.43352 199 172 165
-1.527 0.839408 7.13374 181 179 158
-1.527 0.839408 7.13374 181 179 158
1.3188 -1.86625 7.22971 111 129 106
-2.49445 -1.61459 5.95706 132 128 119
1.21207 -1.32664 7.28999 89 97 97
2.48874 -0.113014 6.89041 85 98 88
-1.33284 0.196408 7.28747 181 177 159
2.65786 -1.61118 6.94359 129 114 111
-0.714407 -2.13879 7.49262 211 195 189
-2.63514 -1.61926 5.86176 91 100 99
-1.93143 0.00402643 6.79631 131 132 127
-2.30778 -1.44515 6.15513 112 118 108
-2.45 1.20058 6.29159 116 115 117
3.07877 -1.0054 6.83151 63 71 79
0.817537 1.04398 7.29289 167 165 153
1.91903 -0.0733632 6.99978 101 112 96
-1.14482 0.390165 7.50579 224 204 191
-1.86134 0.619304 6.99783 227 205 196
0.828855 -1.96841 7.46022 141 134 129
-1.58635 -0.373205 7.02993 199 174 160
-2.25481 -1.96984 6.08789 113 115 105
-2.63323 -1.68813 5.83789 106 114 109
-2.63407 -1.68862 5.83999 102 108 104
-1.33701 -0.935285 7.17314 155 135 130
-2.31384 0.664746 6.71053 198 164 155
-2.31384 0.664746 6.71053 198 164 155
-1.1198 -0.218361 7.49854 154 139 135
0.421165 1.19062 7.46368 160 156 145
0.421165 1.19062 7.46368 160 156 145
-2.76533 -0.67091 6.02061 148 134 130
-2.76592 -0.670814 6.02018 139 127 122
0.0586518 1.65444 7.60659 171 163 162
0.598791 0.673661 7.32803 193 159 143
2.58686 -0.995417 6.92648 60 74 81
2.55435 -1.81982 6.94715 69 71 79
2.55435 -1.81982 6.94715 69 71 79
1.53746 -2.38043 7.3464 111 126 108
2.18273 -1.35869 7.03858 102 115 97
1.3269 -2.04401 7.33438 125 131 111
1.1752 -1.09435 7.32169 140 127 118
1.1752 -1.09435 7.32169 140 127 118
2.78914 -0.264757 6.85444 59 70 80
2.78914 -0.264757 6.85444 59 70 80
1.44298 -0.0410177 7.09117 82 87 86
-1.82457 0.610875 7.01361 217 196 189
-2.10268 -0.994577 6.57177 202 178 171
-2.10242 -0.994718 6.57268 191 168 161
1.12591 -1.12391 7.3303 138 134 121
2.70586 -0.683908 6.97221 53 62 78
2.88863 -1.63534 6.90918 109 92 98
-2.88313 -0.757779 5.89647 111 107 110
-1.60947 -1.50419 6.73823 212 183 167
-1.60947 -1.50419 6.73823 212 183 167
1.57896 1.05205 6.92691 136 128 129
1.57896 1.05205 6.92691 136 128 129
-1.96921 0.00796297 6.77112 167 150 142
1.41173 0.351738 6.99836 153 140 134
1.79858 0.0273835 7.00564 146 123 112
0.0800849 -0.776284 7.52668 194 191 186
1.89266 -1.27224 7.08275 113 126 106
1.67004 0.635185 6.94711 130 130 119
0.00999659 0.323532 7.54598 114 124 115
1.57169 -2.26635 7.29913 115 118 110
-1.62586 1.31302 6.97867 191 176 163
-1.62586 1.31302 6.97867 191 176 163
-2.38899 -0.721222 6.21554 121 124 118
-2.02647 -0.132075 6.66794 155 148 138
0.973191 0.796384 7.19648 95 100 104
0.973191 0.796384 7.19648 95 100 104
1.1567 -0.3967 7.28798 151 150 122
1.1567 -0.3967 7.28798 151 150 122
-0.160236 -2.34812 7.49306 233 212 203
2.67413 -1.9147 6.9439 67 70 78
-1.05873 -2.09067 7.39704 165 143 139
-1.05976 -2.0903 7.39593 172 152 148
1.00576 -0.536547 7.33347 104 118 109
1.60755 -2.02773 7.21747 80 90 94
-2.84662 -0.734886 5.94206 138 122 124
-2.84662 -0.734886 5.94206 138 122 124
0.527823 -0.0273264 7.36116 101 114 103
1.2289 -2.19678 7.40467 86 97 98
2.01582 -0.200269 7.06801 90 90 91
2.69933 -2.07097 6.90635 60 70 79
2.25725 -0.194243 7.01193 70 78 85
0.156898 0.32128 7.49312 108 119 114
1.7997 -0.683743 7.12955 71 86 85
1.56417 0.909282 6.94804 117 117 116
-1.22395 -0.250868 7.39987 173 163 152
-1.49296 -1.5089 6.85756 157 134 130
-1.49296 -1.5089 6.85756 157 134 130
2.30205 -0.952753 7.05239 98 100 99
0.903487 -1.37842 7.39387 137 141 123
1.01328 -0.023376 7.1621 169 139 124
-2.16132 1.2942 6.53034 170 166 161
2.36221 -1.85432 6.97801 90 94 95
-2.81357 0.649925 6.33892 190 169 166
0.95032 -0.0105175 7.1696 174 147 129
1.13204 1.37977 7.17658 161 147 140
2.22342 -1.92843 6.99951 87 93 92
0.714021 -1.04807 7.41385 104 112 103
-1.78597 -0.96953 6.78767 210 188 178
2.32469 -1.0817 7.02287 115 120 102
0.571951 0.150147 7.35317 224 196 180
-1.46419 -0.721951 6.99169 195 180 162
0.446597 0.230931 7.40477 165 135 131
-2.57032 0.0965046 6.43528 163 124 124
0.334166 1.52027 7.51843 194 170 159
1.83457 -0.183786 7.06263 89 100 96
1.83457 -0.183786 7.06263 89 100 96
-2.39041 0.413725 6.52327 140 135 128
1.00758 -0.00533068 7.14833 112 112 108
1.53938 -0.877431 7.18466 97 108 100
0.502965 0.0118644 7.37508 151 133 122
0.502965 0.0118644 7.37508 151 133 122
-2.54436 -1.82031 5.86601 112 115 110
-2.28091 -1.9615 6.07128 122 120 109
1.20541 -1.12691 7.32267 83 95 93
1.20418 -1.12638 7.31828 90 103 100
-2.29288 0.338903 6.58692 117 126 113
-2.29288 0.338903 6.58692 117 126 113
-3.01148 0.888369 6.18916 170 150 149
-2.23235 -0.440368 6.4264 109 112 111
2.11673 0.640319 6.73486 86 91 92
0.77832 -0.333053 7.30781 162 141 126
2.99891 -1.96062 6.91518 109 105 104
2.99891 -1.96062 6.91518 109 105 104
1.03732 -0.337711 7.27313 140 143 120
-1.34166 0.0538899 7.23833 178 169 152
-1.42777 0.0210655 7.18216 146 149 132
2.33683 -0.697804 7.04283 72 82 84
1.72383 1.35848 6.85483 128 127 126
1.72383 1.35848 6.85483 128 127 126
0.254162 -1.70881 7.51253 123 129 122
-1.42508 -0.169166 7.17516 169 146 138
-1.12161 0.813925 7.41698 135 139 130
-1.11285 -2.26211 7.33004 138 125 121
-1.11285 -2.26211 7.33004 138 125 121
0.767135 0.922674 7.33544 158 143 142
1.24338 -0.0709505 7.13358 92 101 94
0.494354 0.891063 7.39017 121 122 113
-2.2698 -0.483639 6.38765 115 123 116
-2.27012 -0.483622 6.38789 107 115 108
-2.27012 -0.483622 6.38789 107 115 108
0.14646 -1.43787 7.51596 127 135 119
0.230854 -0.602653 7.5297 198 193 190
0.230854 -0.602653 7.5297 198 193 190
0.513622 0.228448 7.40906 165 142 141
2.84269 -1.39159 6.91603 109 95 95
2.69089 -1.15979 6.95706 80 91 90
0.0421238 -1.26245 7.51224 168 168 167
2.36031 -1.83391 6.97747 75 77 85
-0.960349 1.34635 7.56322 179 155 149
0.236942 0.92785 7.4827 120 123 118
-1.79854 -1.09515 6.69509 166 159 144
1.52735 -0.892103 7.18313 126 131 112
0.48581 -2.45024e-05 7.38445 113 126 115
-1.52737 -0.398581 7.05109 151 149 135
0.690362 -1.52537 7.41112 105 115 106
0.690362 -1.52537 7.41112 105 115 106
1.12426 0.734384 7.15055 89 95 96
-0.010422 -1.02402 7.51723 180 178 179
2.54881 -1.22897 6.97949 148 124 115
2.54881 -1.22897 6.97949 148 124 115
0.798495 -1.88474 7.47743 163 145 137
-1.17004 1.14375 7.38166 152 142 137
1.64106 0.906181 6.90245 105 106 106
-2.45206 -0.821016 6.1779 152 150 138
-2.78329 0.157318 6.27592 187 166 159
-2.78329 0.157318 6.27592 187 166 159
-0.0232969 -0.254261 7.53391 182 183 183
1.56335 -2.29228 7.31209 76 86 91
3.12507 -1.97795 6.89598 103 119 97
0.111493 -0.878021 7.5061 111 121 120
-2.39388 -1.10548 6.29288 117 122 115
2.11254 1.27858 6.7314 95 97 100
0.0540542 0.338563 7.53848 117 129 120
0.451886 -0.452899 7.41727 202 177 159
0.942931 -0.500874 7.3425 126 139 119
2.56542 -1.85843 6.94019 130 115 114
-1.87818 0.938493 6.85111 128 126 124
-2.53971 0.962112 6.41593 108 109 114
1.19953 0.57687 7.0665 118 129 101
0.489725 -0.513445 7.44843 84 92 95
0.832153 1.37032 7.29996 178 157 150
-1.75505 -1.29114 6.61815 138 141 129
-2.31298 -1.05506 6.40865 202 180 170
-2.59331 -1.493 5.92512 116 121 108
-2.59331 -1.493 5.92512 116 121 108
0.890324 0.38328 7.19716 103 113 106
1.01255 -1.99076 7.44352 106 119 111
0.613338 -1.25801 7.42923 160 146 137
-1.1007 0.536093 7.53326 220 202 191
-1.79358 -1.11198 6.69318 119 127 113
-2.58411 0.0175357 6.41889 138 124 124
0.854104 1.34145 7.28661 189 165 156
2.0179 0.108823 6.93442 81 84 88
2.16036 -0.768448 7.064 112 95 95
0.541657 0.798071 7.36881 223 192 184
0.893706 1.45741 7.27299 126 124 122
-0.0863419 0.142071 7.54163 111 124 113
0.00227783 0.729299 7.57593 169 168 169
2.29075 -1.47422 7.00603 65 74 79
-2.39124 0.112894 6.57981 164 123 120
1.24598 -1.21883 7.27834 89 100 95
-2.42301 -1.33781 6.10686 105 106 103
1.71869 -0.9671 7.16716 93 104 95
0.455167 -0.345844 7.38307 110 107 107
0.541054 -1.25641 7.43076 111 125 115
-1.11634 0.524765 7.53438 144 135 132
2.23808 -1.65106 7.01444 69 79 82
-2.6592 0.0399181 6.36257 242 228 223
0.888011 -0.483727 7.3392 133 142 119
1.5953 -1.30085 7.13743 89 103 95
1.54208 -0.707645 7.19671 90 102 97
1.54208 -0.707645 7.19671 90 102 97
0.934298 -1.06886 7.39217 103 112 101
0.934298 -1.06886 7.39217 103 112 101
-1.33688 0.746032 7.30643 173 170 156
1.19059 -1.81172 7.28559 83 91 94
2.07827 0.8233 6.74277 96 101 100
-1.23436 -0.874997 7.31409 158 147 139
-0.959471 1.45166 7.55582 200 171 159
-2.44405 -1.06977 6.33937 149 134 128
1.23211 -1.11582 7.27812 141 130 118
1.23211 -1.11582 7.27812 141 130 118
-2.58629 0.255612 6.40998 108 111 111
-1.63864 -0.957871 6.87495 150 143 137
-2.12404 1.0051 6.65607 187 167 161
-1.87315 0.891495 6.8756 137 136 128
-1.87315 0.891495 6.8756 137 136 128
1.04698 -0.90269 7.34133 102 117 105
-1.12284 1.17599 7.41935 132 133 127
-2.10063 -1.90051 6.25532 111 117 108
-1.18998 0.729259 7.39289 128 130 121
-1.18998 0.729259 7.39289 128 130 121
2.14901 0.741781 6.70597 123 125 118
0.319807 -1.23738 7.43773 97 102 105
1.469 -1.83008 7.20338 113 132 111
-2.34917 -1.50299 6.10125 167 134 127
1.5163 -1.22442 7.16089 80 91 89
1.6123 -1.35554 7.11885 92 102 96
1.19094 1.45028 7.15377 165 152 149
1.19094 1.45028 7.15377 165 152 149
2.30384 -0.683196 7.05065 90 98 91
1.67467 0.679498 6.88663 90 96 98
0.748973 -1.60851 7.39982 131 142 117
-1.31633 0.283175 7.30537 203 175 158
-1.31633 0.283175 7.30537 203 175 158
-1.02806 1.19623 7.54374 144 143 136
1.82182 -0.70066 7.10437 70 80 84
1.27689 -1.32556 7.28454 87 92 94
-1.53055 0.522629 7.20998 176 150 140
-2.6075 -0.369057 6.25405 148 124 124
-1.54783 0.809473 7.15252 137 143 134
-2.62202 -0.80458 6.05808 96 100 102
0.727198 -0.875119 7.43177 116 124 113
1.20185 -0.0723114 7.13644 164 129 118
0.629294 -0.543236 7.41194 125 138 118
0.454522 1.21715 7.44792 150 140 134
-2.76404 0.439029 6.2661 118 120 118
-1.62951 -0.887588 6.87907 114 120 116
0.878797 0.0716521 7.18268 102 115 103
0.493468 -0.426859 7.40567 108 118 107
-2.58658 0.371747 6.38254 116 119 114
-2.45508 -1.97338 5.89962 141 138 128
-1.0462 -2.00648 7.4323 226 200 186
0.409839 -1.71693 7.51144 184 181 181
0.365796 -1.34243 7.45098 114 124 113
-2.37525 -0.3565 6.37178 108 116 112
0.957301 0.835724 7.19709 114 115 111
0.957301 0.835724 7.19709 114 115 111
-3.045 1.02644 6.08089 112 112 116
0.194535 0.0711554 7.48495 140 143 129
1.5477 -0.910733 7.18613 91 102 94
1.5477 -0.910733 7.18613 91 102 94
0.651038 1.00675 7.36813 120 120 120
-1.11301 0.79128 7.42737 136 141 131
2.53066 -1.72031 6.92652 62 72 81
-2.4907 1.00323 6.37663 116 119 119
1.33462 -1.33269 7.23497 138 138 124
-2.05238 1.07983 6.71934 122 116 118
-2.56247 -1.83957 5.84667 133 132 124
0.928541 -0.439657 7.33211 81 91 92
-2.48123 -1.3801 6.0407 99 103 100
-2.48123 -1.3801 6.0407 99 103 100
-1.11824 -1.8459 7.40217 203 179 167
2.29634 -0.588506 7.04905 63 69 78
0.736521 1.5057 7.365 190 165 155
1.34134 1.38925 7.06896 103 102 108
0.532108 0.965071 7.41098 186 159 148
-1.42403 0.905693 7.21897 150 155 140
-1.71083 -1.87074 6.58469 144 138 123
-1.27832 -2.09226 6.98871 222 184 166
1.23615 -1.35436 7.27985 131 126 113
-2.93155 -0.870939 5.78127 120 118 114
1.41231 -1.49601 7.19083 110 127 111
0.715581 -1.53116 7.40359 135 137 122
-1.54832 -1.19403 6.85197 153 149 136
0.755042 1.55964 7.36886 188 166 156
0.132212 -1.05999 7.47947 189 165 149
1.50622 -0.967309 7.18745 119 127 114
-1.60969 -2.10357 6.621 124 130 114
-1.60969 -2.10357 6.621 124 130 114
0.656289 -1.5656 7.42049 112 122 115
-1.33874 0.0726951 7.23979 125 135 123
2.5317 -2.27332 6.96204 57 71 80
0.951044 -1.13481 7.38938 141 139 120
1.48712 -2.306 7.34342 119 132 112
-1.47197 1.12154 7.13875 151 138 135
-1.58489 -1.79498 6.68448 187 171 158
-2.28288 -0.506285 6.36716 108 115 110
0.00154511 -1.14553 7.51755 107 117 108
-1.8244 0.0432826 6.8953 174 171 158
-2.58999 1.19894 6.19926 108 113 115
-2.58999 1.19894 6.19926 108 113 115
1.0979 -0.307579 7.27122 135 121 108
1.66574 -0.302387 7.19776 90 100 94
-0.0165347 -1.27796 7.52179 174 174 173
1.25539 -1.3741 7.27692 130 124 113
1.40508 -0.519014 7.29549 115 129 111
-2.29732 0.0870966 6.62953 208 191 184
-2.77329 -1.31561 5.95584 103 107 107
-0.801972 -2.24392 7.47348 123 136 124
1.13942 -0.0498993 7.14667 153 128 114
1.17698 1.13894 7.13211 119 121 118
-2.44581 -1.48853 6.02192 116 119 114
-2.44576 -1.48841 6.02137 110 113 105
-2.5217 -0.38823 6.27535 216 194 186
0.473894 -1.05617 7.4373 94 103 100
1.96242 -0.135797 7.0359 147 124 110
-1.5741 -0.933752 6.92989 212 194 182
1.57734 -1.31491 7.1389 136 127 117
1.03394 -1.86152 7.36162 88 97 101
1.60149 -1.07989 7.197 71 81 85
0.372223 -0.13006 7.40268 94 102 100
1.22316 1.41684 7.13273 159 146 140
1.84065 -0.874393 7.12461 112 119 101
0.271764 0.787106 7.46297 92 101 105
0.506095 -0.298674 7.36439 121 123 110
0.732695 0.926351 7.35552 181 169 163
-1.11481 -2.42352 7.28991 197 170 159
1.08097 -0.287321 7.25465 89 97 97
-0.730303 1.63853 7.58407 214 194 187
0.724974 -1.40211 7.40789 160 135 133
1.66755 1.1938 6.90265 111 112 112
1.27291 -1.13606 7.26766 122 122 110
0.950224 0.251631 7.17694 103 109 106
-0.0608562 0.162039 7.54316 120 133 122
-2.65525 0.0425947 6.39847 170 137 136
0.310577 0.927738 7.45772 134 140 126
3.06662 -0.990768 6.85224 64 72 80
1.99968 -2.33934 7.15803 92 103 95
0.422391 -0.909154 7.46447 137 151 122
0.00829791 -2.48473 7.50608 121 128 122
1.11372 -1.11266 7.34344 89 96 95
0.518144 -0.478919 7.42389 88 97 96
0.163717 1.68291 7.60329 216 199 187
0.395252 -1.1833 7.42327 123 126 118
-1.51813 -1.30952 6.83387 214 189 172
0.727544 1.34592 7.34817 177 157 147
1.26177 -1.31286 7.26773 125 119 111
1.80953 0.0422904 7.00741 86 83 85
0.487866 -0.312403 7.36742 182 164 155
-0.90478 1.53025 7.59271 214 187 174
1.96195 -1.82807 7.04904 111 120 105
0.942145 0.852111 7.19708 162 159 149
-1.89592 0.928798 6.84301 177 166 156
-1.37317 0.541955 7.32133 189 166 156
2.3231 -1.68446 6.95606 63 78 86
0.63032 0.436533 7.333 97 104 101
0.435736 0.375071 7.36996 72 82 92
-2.29744 0.657766 6.71769 206 174 163
-2.29744 0.657766 6.71769 206 174 163
1.96413 -0.0222766 6.97181 68 79 84
1.96413 -0.0222766 6.97181 68 79 84
-0.681745 -2.45188 7.42575 121 128 119
-1.00984 -2.28053 7.39 157 141 133
0.875003 0.467546 7.24375 110 103 102
0.888394 -1.03539 7.39939 111 123 111
-1.0152 1.2177 7.53622 152 145 142
-0.0384285 0.157511 7.52407 140 152 128
-2.54548 -1.65845 5.90983 96 99 97
1.33503 1.02621 7.06465 141 133 132
0.036925 -2.38449 7.50709 227 210 200
0.806221 -1.61322 7.3763 128 133 121
-1.73427 -1.29577 6.673 173 166 153
-1.73497 -1.29544 6.67141 166 158 146
-0.226194 1.50797 7.58858 186 174 173
-0.24118 -2.35858 7.49056 239 201 183
1.45825 0.0510834 7.06818 121 120 105
0.143336 -1.07331 7.48608 132 141 119
0.848245 0.998626 7.28195 150 144 138
1.65086 0.220211 6.94994 98 114 101
-1.931 -0.616555 6.67682 164 154 142
2.26605 -0.898916 7.05392 140 131 120
2.26581 -0.898895 7.05406 131 122 112
1.94876 -1.38347 7.05835 110 119 103
1.19276 1.4742 7.15252 165 152 147
-1.45476 -0.570927 7.03733 179 171 154
1.43376 -0.0520062 7.10624 136 122 108
1.28581 -1.53351 7.25002 117 129 115
1.16095 -1.15292 7.32112 93 105 103
2.46888 -2.02209 6.94076 75 85 85
-1.65227 -1.81496 6.64356 167 160 146
0.678576 1.08358 7.3952 173 164 153
0.77079 1.20379 7.31267 125 125 121
2.11747 -0.000426168 6.94748 89 99 94
-1.99751 1.25165 6.72733 163 148 144
-2.36728 -0.238047 6.41832 140 134 124
-1.10937 -1.6132 7.26929 192 175 169
1.1346 -2.3603 7.47055 87 96 100
-2.20337 0.998211 6.58966 139 134 129
-2.24655 -0.552383 6.36693 112 122 114
1.31391 0.654086 7.06714 83 94 93
3.08402 -2.00163 6.89357 106 111 101
-1.95894 0.63946 6.93449 220 188 177
-2.39237 -0.495665 6.32439 203 180 170
-2.39237 -0.495665 6.32439 203 180 170
-0.316847 -2.50079 7.46912 180 147 140
2.65394 0.0847224 6.7759 99 98 95
1.87135 -0.814746 7.10629 115 120 102
-2.45701 -0.375461 6.33509 205 181 174
-1.48159 0.417122 7.22384 148 148 138
2.18604 0.815114 6.66394 86 91 95
2.91575 -1.65914 6.914 52 59 73
-1.53414 -0.541798 6.993 178 160 149
0.0939898 -0.885275 7.49817 143 145 137
2.21093 -1.88418 7.00812 125 130 111
0.738661 -1.18447 7.41423 142 148 128
0.89819 -0.930618 7.38223 133 138 122
1.19931 -0.0547929 7.1368 95 98 93
-2.26082 -0.673534 6.31885 109 115 105
-1.89895 -1.56264 6.50121 140 134 124
2.31706 -1.27626 7.02364 100 111 98
-2.07634 0.683893 6.85506 186 151 144
1.19796 0.792807 7.11623 136 126 124
0.645505 -1.58564 7.42938 104 114 108
1.91313 -0.385199 7.12564 96 107 99
0.469477 -0.387745 7.39141 183 158 138
1.87502 -2.31237 7.23066 101 112 103
-1.6655 0.319947 7.11351 210 186 175
-1.16639 0.446117 7.48875 142 136 128
1.12399 -1.35588 7.31632 125 140 118
-1.50118 -1.17427 6.88621 128 130 120
2.74614 -1.25269 6.98914 125 109 107
-1.56969 -0.494522 6.98921 133 141 122
0.534619 -0.295081 7.35768 107 113 104
1.00854 1.51117 7.22716 155 147 142
1.2755 -1.73306 7.25209 87 95 98
-1.17015 0.353348 7.49727 168 144 138
1.54315 -1.03496 7.2371 107 121 109
2.74387 -1.5905 6.95068 80 78 89
1.56409 0.0859976 6.9997 87 95 95
2.05917 -0.179654 7.05741 132 117 107
2.05917 -0.179654 7.05741 132 117 107
0.597281 -0.551281 7.43622 145 133 121
1.58834 0.0762793 7.03247 91 104 98
-1.39495 0.975761 7.23506 226 202 188
-1.39495 0.975761 7.23506 226 202 188
-0.0673634 0.547962 7.55994 184 171 171
-0.00278348 0.860136 7.57249 167 154 140
-0.00278348 0.860136 7.57249 167 154 140
1.86975 -0.0434117 7.02743 127 108 99
-2.22257 1.06677 6.55677 176 162 153
1.18828 -2.23546 7.4251 93 105 101
0.103641 -0.583381 7.52702 139 146 137
-1.89011 -0.974604 6.71671 208 186 176
-1.88969 -0.974397 6.71465 215 195 184
0.891502 0.329946 7.21619 94 104 99
1.76154 -2.17628 7.19574 78 84 86
-2.78685 -0.0417459 6.26455 179 156 150
-2.78685 -0.0417459 6.26455 179 156 150
-2.8008 -0.984021 5.93585 147 140 134
1.32884 -2.29164 7.36262 128 134 120
-2.89871 -0.333065 6.02412 108 111 112
1.19023 1.31237 7.15793 156 142 139
-2.24474 0.779919 6.71731 179 159 154
-2.24474 0.779919 6.71731 179 159 154
0.333869 -0.418338 7.40468 196 174 165
0.333869 -0.418338 7.40468 196 174 165
1.10053 -1.36404 7.31985 95 110 100
-2.8046 -1.25109 5.98057 127 112 112
2.51157 0.468039 6.66145 65 77 85
2.06734 -0.427486 7.05998 90 101 95
3.2322 -1.39256 6.81591 102 96 100
0.198606 -0.289495 7.43915 146 125 117
0.118937 1.60577 7.60027 198 182 175
2.65486 -0.881872 6.98445 165 149 144
-1.80458 -1.526 6.57513 199 172 156
-0.0401479 -0.890201 7.52054 125 127 121
-2.73813 -1.48939 5.86338 146 143 132
-1.11674 -1.63941 7.26837 183 162 153
1.12963 -1.1478 7.32536 91 99 97
-0.849614 -2.4121 7.41015 138 148 127
2.26345 -1.57465 7.00307 113 115 104
0.30283 0.964053 7.46822 120 131 117
2.52932 1.17069 6.65011 87 89 91
2.52932 1.17069 6.65011 87 89 91
-2.79341 -0.772536 5.95982 110 112 108
-2.37462 0.425658 6.55022 151 149 136
-2.41992 -0.324785 6.36655 206 184 175
1.31666 -0.545348 7.26107 102 117 103
-1.52663 -1.00535 6.92073 139 136 127
0.341935 -0.548495 7.42838 128 137 122
-1.52808 -1.34686 6.82091 171 147 137
-1.52808 -1.34686 6.82091 171 147 137
-2.00522 0.203219 6.85296 175 144 138
0.677278 -1.53696 7.41922 138 146 122
0.677278 -1.53696 7.41922 138 146 122
-0.920066 0.875536 7.55697 147 148 143
0.117118 -2.51143 7.50445 117 124 121
-2.60183 0.0162178 6.40501 142 127 126
0.50966 -0.631737 7.45571 127 140 121
-1.51782 -0.93991 6.94848 161 153 143
1.11764 0.404824 7.11684 76 86 92
0.907441 0.26707 7.20362 170 152 135
0.954742 -1.94416 7.45036 134 146 127
-0.95883 -2.11661 7.4605 212 190 177
-1.14779 0.526108 7.52074 150 146 135
1.11219 -1.08201 7.34186 140 130 121
1.25983 0.126772 7.06277 109 123 103
1.24428 -2.15013 7.40946 126 134 121
0.417823 1.16353 7.44067 160 158 146
-2.80202 -1.47206 5.83714 103 107 102
2.54204 -0.41998 7.00753 101 100 98
0.737425 -0.156605 7.28702 143 142 115
0.737425 -0.156605 7.28702 143 142 115
1.596 0.100829 7.01197 80 92 89
-2.95812 0.570735 6.17894 131 128 126
1.498 -2.28586 7.32683 90 99 99
1.498 -2.28586 7.32683 90 99 99
-2.28101 0.941201 6.56351 117 120 117
-1.05829 -2.28818 7.35577 114 119 115
-1.05829 -2.28818 7.35577 114 119 115
1.86856 -2.2371 7.19201 127 121 110
-1.89359 -1.08436 6.64688 132 139 124
0.370092 -0.886552 7.44363 90 99 101
-1.44169 -0.587836 7.02216 133 140 130
-1.44169 -0.587836 7.02216 133 140 130
0.00791479 -1.03113 7.51209 122 128 119
-0.715073 -2.4677 7.41516 183 153 143
0.85947 -0.791493 7.36964 107 112 106
2.92039 -1.68179 6.90401 57 62 79
1.03102 0.034232 7.15261 93 105 98
1.527 -0.021874 7.04977 114 127 102
1.42999 -1.85376 7.20076 88 100 99
2.6784 -1.93989 6.94788 76 74 80
1.91275 -2.13442 7.11681 75 84 87
0.894607 -1.45346 7.33081 79 90 96
2.13662 -2.38265 7.13229 59 72 79
-1.30913 0.799853 7.31261 192 171 159
1.37704 -2.26118 7.35609 96 103 104
2.56034 -1.83744 6.92476 94 95 94
2.56034 -1.83744 6.92476 94 95 94
2.1967 1.1881 6.70419 76 80 89
2.1967 1.1881 6.70419 76 80 89
1.97631 -0.452132 7.10505 100 113 102
1.47501 -1.55358 7.11498 106 118 110
1.10899 -0.0127604 7.15473 98 106 100
-2.49039 0.557358 6.52331 122 121 121
2.17259 0.276895 6.81996 110 124 98
1.87831 -2.42055 7.26247 75 83 89
0.412629 0.565514 7.39366 86 98 100
0.412629 0.565514 7.39366 86 98 100
-1.06189 -0.707999 7.51571 138 140 132
1.91689 0.237481 6.92324 111 109 105
0.0151048 0.195986 7.51955 110 120 110
-0.82039 -2.36532 7.44958 113 123 115
-1.33811 0.910592 7.26716 190 175 162
-2.57291 -1.60987 5.87773 159 159 133
2.33743 -0.653345 7.04596 100 99 95
2.30931 -1.16535 7.04068 157 127 115
-2.38 0.437488 6.5415 101 108 108
-2.29213 0.614684 6.70091 200 173 161
-2.22916 0.805702 6.70327 166 158 149
0.046084 0.987382 7.5438 151 152 132
-2.42979 -1.74028 5.98225 147 137 129
-1.78323 0.58308 7.04859 169 139 136
-2.47619 -1.08941 6.27469 147 125 120
0.782937 -1.10292 7.43272 122 127 115
-1.58723 -1.4979 6.75075 208 178 162
-1.20692 -2.1321 7.20945 176 151 145
0.913665 -1.04697 7.39732 100 111 101
2.90521 -1.63767 6.90944 62 64 75
1.28114 0.330862 7.04424 91 82 89
1.34159 -2.14802 7.32623 69 83 91
-1.62548 -2.15388 6.59482 127 133 115
-0.0978592 -1.11502 7.5072 175 173 171
-1.0976 -0.0687926 7.47808 149 148 143
2.63575 -1.7265 6.90943 111 100 106
1.69774 -2.3511 7.27207 74 87 89
1.06045 -1.05702 7.36462 92 102 101
2.55848 -1.21236 6.99218 144 123 116
2.55848 -1.21236 6.99218 144 123 116
2.48225 -1.70149 6.92693 64 74 83
-1.51893 -1.33271 6.83032 223 194 179
1.83701 0.244429 6.93442 106 113 100
0.505978 -0.603502 7.46532 138 147 122
2.21852 -1.3726 7.01915 102 111 101
2.21852 -1.3726 7.01915 102 111 101
0.31157 1.57622 7.54531 168 159 150
2.43146 -2.18036 6.91225 60 69 77
-0.438348 -2.32494 7.4882 227 215 210
0.642387 1.17038 7.3606 152 155 137
-2.34309 -0.18795 6.4416 136 131 124
1.07133 -2.17081 7.48837 132 135 123
1.53337 -1.25249 7.15624 85 93 92
-2.39907 0.47962 6.55198 161 158 146
-2.39907 0.47962 6.55198 161 158 146
-0.281211 -2.1264 7.49691 231 186 167
1.83395 0.197911 6.94221 73 83 83
1.83395 0.197911 6.94221 73 83 83
2.96289 -2.08849 6.9066 86 96 92
-1.50382 0.366626 7.21229 172 149 140
2.20536 -0.0627494 6.96725 144 123 116
2.2467 -0.483588 7.03247 101 109 101
1.36703 -1.08355 7.23987 150 130 122
0.377618 -1.45933 7.4593 117 120 114
1.67959 -2.20244 7.21016 116 126 106
0.586257 0.855426 7.35519 179 159 158
0.888172 0.296894 7.21441 100 112 104
2.70237 -1.76474 6.92768 62 63 77
-2.15868 -0.397026 6.48143 137 135 127
-1.45203 0.822211 7.20044 139 142 132
-1.45203 0.822211 7.20044 139 142 132
-2.15988 -1.6501 6.24982 115 120 108
-2.00823 -0.754737 6.5558 155 157 138
-1.54059 -1.12247 6.87657 178 169 153
1.38099 -2.06908 7.33347 147 131 125
-1.80905 1.05854 6.92491 204 187 180
-0.927559 -2.08106 7.48537 159 137 131
-0.927559 -2.08106 7.48537 159 137 131
-2.60531 -1.03871 6.11841 109 112 107
3.07099 -2.00335 6.90855 63 78 82
-1.13422 1.08258 7.40666 149 146 138
-1.33217 0.0388965 7.24416 128 133 127
1.01975 -1.88851 7.37771 116 132 112
-2.68961 -1.50358 5.88131 121 123 110
2.75077 -0.0620149 6.79745 58 68 78
0.829023 0.715427 7.24427 146 140 131
-2.23843 -0.719035 6.33526 153 149 135
0.657364 0.750015 7.23955 125 133 114
1.58249 1.24371 6.93326 148 130 128
2.67407 -1.60068 6.94696 66 71 78
-1.78334 -1.15492 6.6866 122 128 117
1.50998 0.983544 6.94618 90 93 97
1.20383 -1.25832 7.28698 99 111 108
1.7492 -0.422082 7.18755 68 82 85
1.22292 -1.51954 7.26618 97 106 101
1.22292 -1.51954 7.26618 97 106 101
-0.0872674 1.00439 7.57073 198 185 183
0.0830746 0.437608 7.53946 110 120 112
-1.46926 -0.0288737 7.11262 172 166 144
-2.70727 -0.38631 6.18615 145 121 123
-1.36789 -0.265299 7.29494 196 178 164
0.327834 -0.962077 7.45693 126 136 115
-2.23389 -2.01928 6.09567 155 138 127
2.78528 -2.10729 6.92224 106 101 98
-2.68596 -0.367424 6.21009 152 129 127
-0.0528458 -2.45248 7.48332 236 216 205
-0.0528458 -2.45248 7.48332 236 216 205
0.773131 0.671611 7.29362 89 87 97
1.35886 -0.606893 7.25518 122 125 111
0.660667 0.29502 7.33858 125 131 112
-1.39682 0.41119 7.27251 190 170 159
1.50674 -1.84975 7.20784 116 126 110
1.50674 -1.84975 7.20784 116 126 110
1.91698 -0.646913 7.13028 88 89 91
-1.04764 -2.16898 7.38795 157 135 131
-1.04764 -2.16898 7.38795 157 135 131
1.33339 -1.13088 7.23919 128 131 117
1.33339 -1.13088 7.23919 128 131 117
-1.7468 -1.51734 6.62331 191 168 155
-2.74773 -1.32591 5.95175 126 123 119
-2.74773 -1.32591 5.95175 126 123 119
-1.22942 -0.785645 7.25766 151 142 139
1.62495 1.22941 6.91189 154 135 134
-2.26985 -1.5453 6.16049 162 136 134
2.58633 0.670378 6.61082 117 121 114
1.69618 -0.948686 7.1628 87 98 90
1.69037 -2.03745 7.1667 68 79 86
1.59369 0.856008 6.94525 126 125 125
-1.83159 0.681831 7.01458 163 144 142
-2.54181 -1.68329 5.91453 97 98 99
